1.391872 4.802363 6.352352
-4.587671 -1.988284 3.477044
4.718141 1.655037 7.794633
-4.898180 1.003907 6.820811
4.441312 -2.296682 5.285561
-3.742787 3.315350 4.475317
3.248286 3.801136 2.496013
3.867917 3.168473 3.784087
-3.879071 -3.154807 0.234895
0.969760 -4.905055 8.637424
-0.910895 4.916327 2.875515
-0.248365 -4.993828 1.040647
-0.040558 -4.999835 6.992486
-4.819545 -1.331159 5.935412
3.435607 -3.632713 7.206674
2.154600 -4.511951 0.753228
-0.503251 -4.974609 1.823227
0.775767 4.939452 9.119745
1.690190 4.705662 4.384247
2.898746 4.073975 6.788048
1.166290 -4.862074 9.334027
-1.824426 4.655262 9.589269
-3.802982 3.246125 4.130602
3.517241 -3.553732 0.481244
3.879278 -3.154553 8.726680
1.080965 4.881753 7.105864
-4.901179 -0.989166 9.930533
4.152666 2.784846 5.788607
-4.428709 2.320892 6.626545
-1.583340 4.742682 9.423852
1.259801 -4.838688 6.369991
0.415409 4.982714 4.196211
1.870553 4.636921 4.421845
-2.466822 -4.349114 9.209845
4.897068 -1.009321 5.582869
-1.537497 -4.757741 1.762402
4.956659 0.656907 8.101962
2.849887 4.108302 0.026477
3.124908 3.903197 7.676067
-4.854927 -1.195696 9.802406
4.311118 -2.532640 1.744115
-4.871701 1.125402 6.172563
4.775263 -1.482182 6.976121
2.194393 4.492732 1.048869
4.379373 -2.412695 6.264535
-1.951269 -4.603536 7.676469
2.239553 4.470392 7.397635
-1.176046 4.859724 0.672191
3.920891 3.102678 5.933833
3.812471 3.234975 7.961501
0.644051 4.958346 9.368346
4.662458 -1.805959 6.866868
-4.481521 -2.217199 6.625190
4.619380 -1.913460 1.038366
-4.504160 2.170838 6.285936
2.719586 -4.195695 0.524726
-4.977609 0.472661 5.551530
-4.893487 1.026542 8.575009
4.925259 0.861292 2.540464
4.996197 -0.194988 9.386511
-2.388979 4.392355 4.306177
-4.985445 0.381235 5.788976
4.420727 2.336060 3.718586
4.999018 0.099072 2.768724
3.508453 3.562409 4.231080
4.256277 -2.623759 6.419199
-4.002056 2.997257 6.401358
-0.098209 -4.999035 1.065216
3.395808 3.669944 7.072371
-4.547115 2.079363 7.029668
4.983955 -0.400245 2.559284
-3.987973 3.015969 5.686240
-2.295255 -4.442050 7.681618
4.983298 0.408345 9.716474
-1.824499 4.655234 9.756214
3.709181 3.352905 7.547122
4.954287 -0.674567 5.267722
-4.879864 -1.089462 7.271358
-0.699632 4.950810 4.894031
-4.919342 -0.894470 9.987578
-4.811176 1.361099 0.069252
-4.877246 -1.101121 1.257104
-4.987041 0.359754 8.450637
-4.750895 -1.558525 4.368259
-4.970089 -0.546092 3.715089
1.847309 -4.646230 5.786651
4.969768 -0.549003 4.061776
4.536412 -2.102609 9.834545
-3.841071 3.200964 4.209821
-4.999883 0.034178 2.194699
4.985116 0.385515 6.802616
4.804844 -1.383283 5.756594
2.665000 4.230576 3.796856
-4.912735 0.930073 8.019275
-4.529504 2.117450 4.541688
4.999395 -0.077784 8.032127
-4.730228 1.620167 8.528722
2.731796 4.187755 5.727823
3.866619 -3.170057 6.787389
-2.549050 4.301435 2.697565
-4.839810 -1.255484 1.462930
3.580961 -3.489515 8.715598
0.570182 4.967383 5.267487
-0.658805 -4.956408 3.329438
-4.974251 0.506782 0.727710
-4.947652 -0.721620 1.290541
-3.472678 3.597292 2.660661
-4.115869 2.838947 6.317005
-4.569540 2.029607 9.835425
-1.060327 -4.886277 1.270508
2.632071 -4.251141 3.913573
-2.314642 -4.431978 0.354907
-2.139225 -4.519261 4.975953
-1.474372 -4.777680 6.964426
4.926452 0.854441 3.972330
4.988376 0.340742 3.959987
-3.445500 3.623331 2.785501
-1.221497 -4.848499 0.579900
0.738451 -4.945168 9.753818
3.908371 3.118435 4.173691
-4.877873 1.098343 9.264151
-1.404366 4.798724 5.070631
4.829892 -1.293115 4.502740
4.971604 0.532124 7.557759
-0.065699 -4.999568 9.092611
-1.808572 4.661445 2.985975
-3.834985 -3.208254 8.450626
3.740257 3.318204 4.705553
-2.585970 4.279341 6.060613
-3.941089 -3.076981 1.677543
-3.461667 3.607889 9.896521
2.425502 -4.372292 1.992672
1.356245 4.812546 0.104813
-3.231857 3.815114 2.443705
-2.131584 -4.522870 9.396019
-1.910082 4.620778 3.266628
2.796536 -4.144802 7.963078
-4.848272 -1.222398 8.748581
-1.040307 4.890579 6.242228
3.964274 -3.047053 4.480005
-4.925272 -0.861216 2.682477
-4.999630 0.060786 1.164065
-4.993135 0.261916 8.116182
4.143642 -2.798254 4.381156
2.723900 -4.192895 4.045245
4.967129 -0.572389 5.106260
4.992578 0.272328 5.575513
2.500333 -4.329934 6.892307
3.823560 -3.221862 8.459786
-2.592656 -4.275293 9.410978
4.783133 -1.456584 5.802906
4.913323 -0.926964 0.090117
-4.207559 2.701194 8.847610
-2.320867 -4.428722 4.448455
0.049598 4.999754 0.919154
-0.404393 4.983620 9.654720
2.092380 -4.541139 9.305771
-1.847467 4.646167 2.226283
4.404998 2.365585 0.569969
4.605290 -1.947126 5.241486
-3.400407 3.665683 7.023395
-3.732735 -3.326664 3.423589
-3.963834 3.047626 8.002409
3.659148 -3.407439 4.547132
-1.338883 4.817405 8.817490
4.957690 -0.649082 2.288322
-1.881847 -4.632348 4.431089
4.209176 -2.698673 4.707258
-1.400826 -4.799759 7.178083
-3.827088 3.217669 2.138166
4.830207 1.291938 9.857133
-2.667217 4.229179 7.723406
-1.440329 -4.788053 6.612180
2.137255 4.520193 4.671619
0.930411 4.912671 3.501585
4.362348 -2.443343 3.012217
4.839607 -1.256264 6.669484
-1.474361 -4.777684 8.100519
-1.031639 4.892415 4.694601
-4.899040 -0.999705 0.794999
4.902360 0.983292 2.681418
-4.989710 -0.320613 1.935914
4.041627 2.943680 1.789542
3.675386 -3.389917 9.285032
-4.982418 -0.418939 4.602229
2.255356 4.462440 1.382818
-1.293531 -4.829780 1.209180
0.353684 4.987475 1.754575
-3.935161 -3.084559 7.014461
-3.061994 -3.952745 9.894639
4.719046 1.652454 3.807343
0.754690 -4.942716 0.343761
-2.769809 4.162711 1.706716
-4.978349 0.464806 7.655348
4.785517 1.448732 1.258516
4.934421 -0.807152 9.932260
-4.188097 2.731271 8.231866
-4.021617 -2.970959 9.035508
2.112360 4.531880 7.379392
-0.722326 -4.947549 8.096777
-4.965987 -0.582216 3.709484
1.913859 -4.619215 0.781208
-2.592190 -4.275576 2.658043
-0.933642 4.912058 6.787017
-1.359027 4.811761 7.977360
0.317524 -4.989908 6.472796
-3.622898 -3.445956 2.092975
-2.082075 4.545873 6.739678
-4.944663 0.741826 2.140858
3.847034 3.193796 6.921522
4.170436 2.758163 1.355340
2.466610 -4.349234 7.079370
4.990079 -0.314812 9.018451
3.316002 3.742209 6.921434
-3.025465 3.980774 3.955968
-0.435139 -4.981029 2.247614
-3.430685 3.637362 2.584885
4.973230 -0.516702 6.103233
-3.630933 3.437488 1.210838
4.992133 0.280372 4.333724
-4.209772 -2.697744 2.246754
-3.673263 3.392217 3.384087
2.692994 4.212812 1.000263
-4.993448 -0.255895 3.825970
0.924839 4.913723 7.015284
1.890780 -4.628709 4.671154
-4.128640 2.820342 8.097983
-3.782032 -3.270510 3.285159
-3.197322 -3.844104 1.279823
4.748422 -1.566042 8.030880
-0.908510 4.916768 0.108400
2.372905 -4.401059 6.878587
4.995644 -0.208670 6.283208
4.578089 2.010250 7.694597
1.963006 4.598544 8.179818
-4.324761 2.509272 7.900316
-2.843513 -4.112716 7.363167
2.060988 -4.555472 9.563939
4.514502 -2.149250 4.371336
1.100548 -4.877376 7.730292
-0.246766 -4.993907 0.007414
4.355502 -2.455524 2.809727
-2.347678 4.414568 3.270711
-4.705773 1.689882 5.816221
0.611087 4.962517 7.438176
4.883978 1.070870 9.532320
-4.927062 0.850916 6.580761
4.849916 1.215860 4.428000
-1.497926 -4.770348 3.108917
-2.146652 -4.515738 5.032631
1.544721 4.755401 9.528248
-0.470766 4.977789 3.815883
-2.703933 -4.205799 7.809463
-0.623290 4.960999 0.958315
-0.842290 -4.928544 9.691691
0.663163 -4.955826 0.281039
0.619932 -4.961420 3.815193
-0.760625 4.941806 5.807306
1.554305 -4.752277 0.226348
-2.474672 4.344652 0.310585
-4.741570 1.586669 2.045178
-1.932112 -4.611610 1.378663
-4.664982 1.799428 4.336206
1.528090 4.760771 3.112961
0.288555 -4.991667 1.713984
4.979428 0.453093 0.439096
-0.857037 4.926001 2.950048
4.739422 -1.593073 1.527854
-1.652823 -4.718917 4.775645
-0.413061 4.982909 5.175852
4.235112 2.657785 9.290847
4.440450 2.298348 4.606759
2.109247 4.533329 6.707178
-1.904025 4.623277 7.754817
2.325236 4.426430 5.551757
-0.847810 4.927598 0.426697
-4.980285 -0.443579 1.435632
-3.408629 3.658039 8.119894
4.049923 -2.932256 6.888282
3.070832 3.945883 5.628372
-2.812523 4.133971 3.447451
3.395548 -3.670185 0.498358
4.799807 -1.400661 6.788865
-1.408872 4.797403 2.167213
4.234643 2.658534 2.289883
2.517639 4.319895 3.139391
3.775593 3.277941 9.031454
1.539580 -4.757068 6.333285
0.653273 4.957140 1.246938
4.987011 -0.360170 8.358792
0.171721 -4.997050 0.225200
-4.596836 1.967001 6.825235
-4.647872 1.843174 7.508735
-0.354444 -4.987421 0.239837
-4.136671 -2.808550 1.648801
4.999988 -0.010913 2.948471
1.038649 -4.890931 9.816815
4.571286 -2.025671 6.677404
-4.451973 2.275948 0.979510
4.598081 1.964090 8.364932
1.114211 -4.874273 4.794961
1.946918 -4.605378 5.099758
-4.820530 -1.327588 6.559261
0.616738 4.961818 7.188878
-0.763308 4.941393 4.360503
1.487442 -4.773627 2.679538
3.935836 -3.083699 3.968697
0.221156 -4.995107 8.753913
4.998307 0.130120 8.247808
3.638819 3.429139 3.613277
-4.987388 0.354916 9.781147
0.616960 4.961790 3.469204
4.995629 0.209036 0.323910
-3.027335 3.979352 5.196522
1.036670 4.891351 5.933918
3.668149 -3.397747 0.572321
4.665011 1.799354 9.219675
3.270582 3.781970 9.896661
0.312624 4.990217 9.609097
4.986739 -0.363915 7.172041
4.065657 2.910401 8.122232
2.766990 4.164585 1.807571
-1.003058 -4.898354 1.252581
4.998540 -0.120807 0.652498
-4.047507 2.935590 5.024487
0.127652 -4.998370 5.488946
-4.023820 -2.967974 6.485910
-4.437528 -2.303985 5.707664
3.489886 -3.580600 5.762180
4.761199 1.526756 6.638059
1.981215 -4.590728 0.368842
-3.689165 3.374917 2.561014
-4.965365 0.587493 5.673651
4.908207 0.953677 4.417949
4.343978 2.475854 5.403071
-1.593091 -4.739416 4.472539
-2.949336 -4.037501 8.385294
4.321283 2.515257 6.236652
1.288539 4.831115 6.158291
0.906059 -4.917220 1.399300
-4.931757 0.823271 1.270784
-4.930765 0.829189 6.352771
-4.114860 -2.840410 7.051684
4.542228 2.090014 7.261616
-1.765118 4.678072 2.019522
-1.542232 -4.756209 6.281660
1.111591 -4.874871 7.540153
1.018667 4.895132 8.829991
-4.840655 1.252221 3.383433
1.796496 -4.666112 1.509948
0.597013 4.964230 1.183020
4.657252 -1.819341 0.304745
4.192485 -2.724530 2.106865
-3.914620 -3.110586 8.184342
4.343204 2.477211 7.378063
4.068197 2.906849 7.276265
3.557376 3.513556 0.315983
-1.425394 -4.792521 1.551934
-0.966770 4.905645 9.941353
-4.653725 -1.828343 0.796111
3.441589 3.627047 7.793428
-2.583180 -4.281026 8.399556
4.974267 -0.506627 3.048052
-4.628125 -1.892210 7.319001
-1.123745 -4.872083 6.872932
-2.513427 4.322347 6.411292
-4.988314 -0.341648 1.067539
-4.456559 -2.266955 3.875708
4.826017 1.307503 9.413645
4.925471 0.860076 0.683753
3.439226 3.629287 4.825471
-4.252619 2.629683 0.120417
-4.507356 2.164194 9.973525
3.334802 -3.725466 2.786574
-1.783083 4.671254 7.380667
-0.294099 4.991343 3.335366
-2.392571 -4.390399 1.543482
3.952491 3.062322 9.914393
4.860685 -1.172065 8.686924
4.975784 0.491506 2.706772
-3.964756 3.046425 6.865134
4.291781 -2.565270 2.772875
-4.362862 2.442423 0.672048
4.382292 -2.407388 1.788853
4.964389 -0.595689 4.403853
-4.925233 0.861438 1.048930
-0.777631 4.939159 2.722464
-3.063534 3.951551 3.505109
4.081758 2.887777 4.031875
4.328960 -2.502020 2.189787
3.348613 -3.713057 7.055470
-1.787369 4.669616 2.253225
0.080509 4.999352 5.239245
1.395504 -4.801309 7.261999
-3.378529 -3.685857 2.152895
-1.460477 -4.781946 3.111010
4.955178 0.667989 9.998088
1.369549 4.808777 3.029322
-2.775034 -4.159229 7.395328
-4.998478 0.123346 6.256964
4.828178 1.299498 1.252132
-2.268261 -4.455894 8.619745
0.622223 4.961133 8.783429
-1.476983 -4.776874 3.913030
4.985115 -0.385526 7.853258
-4.714465 -1.665478 9.328531
-4.993006 -0.264369 3.325934
3.641637 -3.426147 2.011766
3.407024 -3.659534 3.541749
4.642413 1.856879 0.206901
-3.491743 -3.578789 2.908398
-3.904291 3.123542 5.293213
-3.522563 3.548458 4.751703
-0.480175 4.976890 4.589997
-2.274242 -4.452844 6.521263
-3.128527 -3.900297 2.167842
2.567229 4.290610 8.641861
-1.602828 4.736132 0.742534
-4.562052 -2.046381 9.561411
-3.130735 3.898525 6.555673
-4.999909 -0.030183 3.558222
4.992600 -0.271932 7.379509
-4.912825 -0.929597 7.886567
4.642560 -1.856511 8.085324
4.970596 -0.541458 9.699173
-4.549331 2.074508 1.007645
-4.940677 0.767926 0.017035
-1.067272 -4.884765 4.929405
-4.606115 1.945174 3.063234
4.155540 -2.780555 1.384626
-0.824387 4.931570 9.850704
4.695992 1.716876 5.276570
3.519550 -3.551446 5.524148
-4.979781 -0.449198 0.105950
0.447132 4.979967 9.081105
4.789989 -1.433878 2.495930
-3.298545 -3.757606 8.099897
-3.816998 3.229633 8.063175
-2.754321 -4.172975 9.556030
-4.987704 0.350444 1.948125
4.142528 2.799904 3.791356
4.326873 -2.505628 2.934521
4.247060 -2.638652 1.703555
-4.997149 -0.168829 7.479596
0.588889 -4.965200 3.892017
-4.994927 -0.225179 2.227403
-2.973375 4.019831 1.770348
-4.754318 1.548051 4.036293
-4.499323 -2.180846 4.520109
4.751347 -1.557145 4.053591
-2.354427 4.410972 8.155952
-4.943701 0.748211 2.246095
-3.248948 -3.800571 3.796181
4.083761 -2.884943 8.934448
1.852429 4.644191 8.499421
-2.329652 -4.424107 7.226515
0.323258 4.989539 6.370499
4.887442 1.054944 1.835550
-4.847776 1.224366 3.691494
-3.877094 -3.157237 6.570505
-4.309532 2.535336 8.095580
0.944279 4.910024 3.801640
4.857828 1.183851 5.261037
-4.023721 2.968109 6.334139
4.998043 -0.139870 1.055520
-4.333552 2.494058 4.283643
-2.249146 -4.465573 4.580486
3.956954 -3.056553 0.623726
4.313122 2.529224 7.918287
2.247185 -4.466560 8.474377
-3.739987 3.318509 2.238781
4.882860 -1.075954 0.731598
-3.276640 -3.776722 1.727318
1.300534 4.827899 0.392244
-4.767059 -1.508361 5.733809
-4.598068 1.964121 5.501544
-0.923401 -4.913993 0.680356
-4.723893 1.638546 3.808945
-4.665178 1.798919 5.488958
4.719147 1.652165 0.081283
4.902821 -0.980992 7.870697
4.728475 1.625277 4.447633
1.331686 -4.819400 8.410169
2.102302 4.536554 4.782412
-1.967407 -4.596663 7.089163
4.702565 -1.698790 1.648003
-4.483257 2.213687 6.894636
3.494121 -3.576467 6.119978
-4.965366 0.587485 7.397568
4.707968 1.683757 3.042009
-3.484874 -3.585478 2.635848
4.739047 -1.594186 0.081148
-0.279751 4.992168 6.756849
4.993889 0.247126 3.452907
2.808965 4.136389 8.872478
4.999592 -0.063836 8.578391
4.905912 -0.965415 4.253457
2.499345 4.330505 7.814348
2.882367 -4.085580 8.184527
-1.139641 4.868390 2.113665
4.514754 -2.148719 5.501206
-0.987002 4.901615 4.687027
-4.968104 0.563864 0.197216
1.701170 4.701704 8.479988
2.542802 4.305132 7.957214
3.035242 -3.973325 6.044012
3.901734 3.126735 4.418098
2.979480 4.015308 2.375268
4.293839 -2.561825 4.714448
3.351273 3.710656 2.824202
-4.452195 2.275513 8.508066
4.976801 -0.481094 6.361153
-4.221351 2.679588 6.528737
-1.049255 -4.888667 9.290005
4.027884 -2.962457 0.517576
-3.266100 3.785841 7.372204
-3.208495 3.834783 3.905153
4.948313 0.717078 7.731113
-4.345951 -2.472390 4.681921
-0.970811 4.904847 0.747443
-0.736247 4.945497 4.655179
3.263764 3.787855 6.657503
-4.675414 -1.772146 2.799012
4.714682 -1.664863 8.343224
-4.867841 1.141984 2.194588
-4.501823 -2.175681 5.538877
1.630249 -4.726763 5.944988
-2.033757 -4.567694 7.861208
-4.873714 1.116653 7.301539
0.123947 4.998463 3.845555
-1.208536 -4.851746 9.370727
2.579288 4.283372 4.585898
3.438699 -3.629787 7.566630
-1.472616 4.778222 2.797562
0.400005 -4.983974 0.941956
2.750859 -4.175257 2.892170
3.717148 3.344071 4.132260
-4.987513 0.353147 4.503239
4.949233 0.710699 8.750906
2.717118 -4.197293 5.919840
-4.312630 2.530064 9.599213
1.601393 -4.736617 9.079596
-4.835097 -1.273513 6.029886
0.115188 4.998673 5.139413
-4.370857 2.428087 0.448323
-0.581748 -4.966042 1.156895
2.616532 4.260723 3.411883
-3.777892 -3.275291 8.878416
4.253892 -2.627623 5.015146
-3.375372 3.688748 7.897731
4.166823 -2.763618 4.146823
3.890768 3.140370 7.519109
1.484021 4.774692 7.144537
-4.835378 1.272446 1.083846
-3.693780 3.369865 2.143986
-0.724897 4.947173 6.617090
-3.251793 3.798137 0.102099
4.955880 -0.662765 6.908410
-4.826893 1.304262 8.114342
4.867272 1.144403 6.080147
4.801672 -1.394253 1.127890
-2.708047 4.203151 9.155246
-0.012635 4.999984 0.821416
-2.658543 4.234637 2.567911
4.941001 -0.765840 8.478970
4.351395 2.462796 1.618952
-4.970940 -0.538293 0.896603
-2.173981 -4.502644 1.490386
3.476701 3.593403 9.193077
-4.820052 -1.329324 2.700526
1.716168 -4.696250 2.398202
-3.304321 -3.752528 4.328582
3.434598 -3.633667 4.831290
0.632320 4.959856 5.131621
4.405779 -2.364130 3.319021
-1.808638 4.661419 4.665726
4.911182 0.938238 1.023569
4.998133 0.136609 6.638681
-4.751374 -1.557062 6.412850
2.313253 4.432704 3.358075
-4.005879 2.992145 1.681207
4.998616 0.117642 2.264195
4.453333 -2.273284 2.710517
-4.787332 1.442723 7.618964
0.057573 -4.999669 9.598015
3.839468 3.202888 1.364398
4.547999 -2.077428 1.500587
4.031142 2.958022 9.567715
-4.931506 -0.824770 1.869891
4.892832 1.029657 6.935174
4.812018 -1.358117 0.809538
-3.863182 -3.174245 1.794711
4.627681 1.893295 2.567047
-0.160378 -4.997427 4.840697
-3.993432 3.008738 6.616794
3.195214 -3.845856 1.102360
4.662302 1.806360 1.588477
-4.156861 2.778580 0.464860
3.456478 3.612860 8.349477
-4.837438 -1.264594 4.517561
-4.916603 0.909401 6.151782
1.909031 4.621212 5.427760
-4.940154 -0.771285 4.107632
3.307379 3.749832 3.030935
-4.999366 0.079626 8.443718
1.074261 -4.883233 1.107112
4.783571 1.455145 0.720160
4.829640 1.294054 4.165359
1.132884 4.869967 6.192147
-2.518731 -4.319259 3.618458
3.191409 3.849014 3.057332
4.665847 -1.797183 0.860280
4.549127 2.074955 3.112762
3.769675 -3.284745 0.642906
-1.415484 4.795457 8.663999
2.809837 4.135797 2.685786
2.375455 4.399683 3.021090
4.571704 -2.024728 5.878136
3.442167 3.626498 6.868675
-0.511499 4.973768 0.873266
0.316018 -4.990003 1.800317
4.069404 2.905159 8.770530
4.987846 -0.348419 3.486615
-3.536213 3.534855 1.483186
4.770826 -1.496402 3.623681
3.690926 -3.372990 4.330647
-2.634725 4.249497 9.830669
-0.714585 4.948673 4.565832
4.751900 -1.555458 7.250601
-4.581726 2.001947 0.143891
0.922171 4.914224 2.747021
-2.126175 4.525415 7.207047
0.598055 -4.964104 0.991877
1.505751 -4.767883 0.625023
4.178824 2.745438 3.141434
-4.909662 -0.946158 9.453879
0.161979 -4.997376 6.121983
-3.183736 -3.855363 6.533032
4.372544 -2.425048 3.119811
-2.722519 4.193792 8.455935
2.472207 4.346055 9.646713
4.836715 -1.267356 0.700469
1.827737 4.653964 5.698930
-1.263572 4.837705 0.628695
0.361925 -4.986884 3.711395
4.817446 -1.338737 9.865096
-4.771349 1.494734 8.962820
0.844570 4.928154 5.759092
4.838946 1.258810 5.288875
4.997157 0.168575 8.432745
-4.437784 -2.303491 8.878231
-3.786016 3.265896 6.015485
-0.815653 -4.933022 2.933871
3.412548 3.654383 4.064707
-4.753208 1.551457 7.365263
-3.949779 -3.065820 5.955295
1.347283 -4.815063 4.178531
4.922895 -0.874700 2.655843
-3.718191 3.342911 9.114392
4.710087 1.677819 6.162305
4.145208 2.795935 7.946593
-2.132079 4.522636 7.672199
-4.987369 -0.355179 7.460707
3.483386 -3.586924 7.142332
4.975962 0.489696 7.714330
4.937271 0.789531 5.129780
-0.841187 -4.928733 5.711700
4.974830 -0.501064 0.193828
4.715512 1.662513 5.438029
0.775962 -4.939421 4.883842
4.456359 2.267347 6.777017
4.816317 -1.342792 0.609481
4.641226 1.859846 2.466677
-3.704622 3.357943 3.703022
-4.275626 2.592107 9.115697
-0.385016 4.985154 5.822404
4.393368 2.387115 6.077023
-0.931263 -4.912509 9.628018
4.973244 -0.516573 2.025518
-1.949935 -4.604102 9.886620
1.094770 -4.878676 2.001708
-2.987686 -4.009206 6.028345
4.780414 1.465485 6.626012
-0.189238 4.996418 5.695469
3.166342 -3.869661 1.054052
1.490118 -4.772793 2.508935
4.923631 -0.870548 2.593729
1.381223 -4.805437 1.518083
1.303922 -4.826985 5.094209
-4.397233 2.379987 5.455708
-4.649030 1.840251 3.680894
-1.834327 4.651370 8.494091
0.700363 -4.950706 2.651433
4.841434 1.249205 9.575797
-0.646983 4.957965 1.343063
-0.552690 -4.969360 6.117788
3.616861 3.452291 5.887126
4.815603 -1.345351 9.195541
-0.138395 4.998084 1.203531
2.050518 4.560195 2.628302
-4.278438 -2.587464 5.308648
-0.527019 4.972148 5.494444
0.534279 4.971373 5.343903
3.906769 -3.120442 8.719483
-2.158020 -4.510316 6.198695
-3.648922 3.418387 1.341150
-4.762798 1.521761 5.088650
3.340414 -3.720434 7.560649
-4.795611 1.414962 9.913089
3.873762 -3.161323 0.706182
4.368515 2.432299 4.100135
-4.702817 1.698091 0.507646
2.607019 -4.266550 2.107977
2.483828 -4.339424 3.574368
2.692286 4.213264 5.112108
-4.659384 -1.813874 3.208891
-3.518088 -3.552894 6.758880
4.975676 -0.492589 3.818600
-4.962560 -0.610735 2.306994
-4.403524 -2.368328 2.333372
4.113793 -2.841955 2.232721
0.673783 4.954394 4.057065
2.344067 -4.416486 8.719478
0.903354 4.917718 9.090365
-4.996995 0.173323 1.208311
-4.229766 -2.666285 5.768627
4.991653 0.288796 9.106716
4.999960 0.020003 3.941125
4.954451 -0.673363 5.569718
-2.048594 4.561059 5.704686
-4.989138 0.329395 8.058353
-0.765293 -4.941086 3.352100
3.969269 -3.040544 5.863539
3.911956 -3.113936 4.650858
-4.922474 0.877066 2.577234
4.934661 -0.805681 8.467161
1.088736 -4.880026 5.006155
-1.414959 4.795612 2.710740
-0.414640 4.982778 6.049340
4.230382 2.665308 5.394506
-4.999978 0.014958 5.649757
2.863349 4.098930 6.246398
-3.781483 3.271145 8.512961
0.786687 -4.937725 8.838167
3.425535 -3.642212 4.838499
4.026564 2.964251 5.703332
0.939350 -4.910970 8.641651
-3.617857 3.451247 3.835853
4.988557 0.338076 1.391159
-3.348225 -3.713407 1.039826
4.392915 -2.387948 8.562887
0.577821 -4.966500 9.805715
-0.028556 4.999918 9.459644
-4.005820 -2.992225 3.501549
2.038093 4.565761 0.898060
-0.278474 -4.992239 2.089625
0.123407 4.998477 4.130692
-4.957111 -0.653489 0.646052
0.330554 -4.989061 1.274641
-4.232535 -2.661888 5.301790
-0.224694 4.994949 5.498776
-4.689147 1.735483 2.244414
4.995885 0.202812 5.163441
4.915407 -0.915847 7.199424
-0.592722 4.964744 7.269591
1.629717 -4.726946 9.005496
2.819246 -4.129389 8.899622
2.735451 -4.185368 8.739490
-1.282654 -4.832680 6.538283
4.896123 -1.013892 9.832549
4.984245 -0.396616 5.197545
0.520509 4.972833 5.903593
-1.540650 -4.756721 7.812164
-2.102628 -4.536404 8.196068
-1.280754 4.833184 6.795682
-0.575345 -4.966788 2.005934
-0.270394 -4.992683 3.950448
1.390110 4.802874 6.783115
4.963011 -0.607056 0.651712
4.974900 -0.500370 3.319949
-2.602607 4.269243 8.427488
4.969594 -0.550580 9.004695
-4.668514 1.790246 8.086393
-3.522431 -3.548589 0.639901
-3.119569 -3.907466 5.592236
2.754174 -4.173072 3.524505
3.072307 3.944734 3.645728
-4.024374 2.967223 9.652825
-2.739602 4.182653 4.091802
4.240536 2.649123 2.315030
1.654654 4.718275 4.998416
-2.473202 -4.345488 5.190664
3.790505 -3.260686 9.627328
0.079833 4.999363 8.248015
-4.968635 0.559165 5.866401
-4.761215 -1.526707 4.170074
3.542913 3.528139 4.107101
-0.015470 4.999976 9.829221
2.916040 4.061614 3.638034
4.978090 0.467563 4.861496
-4.410310 -2.355666 5.678398
-4.265881 2.608114 3.174359
-4.998845 -0.107471 2.660297
4.343124 -2.477351 3.582493
-3.528693 3.542361 9.316685
2.867717 -4.095876 3.411447
-0.234922 -4.994478 3.568631
0.611016 4.962525 3.757240
-1.491746 -4.772284 9.746829
4.965403 0.587178 5.846418
0.904238 4.917556 0.721583
-1.395430 -4.801331 9.847096
2.487119 4.337538 5.100593
4.629062 1.889917 1.385057
4.863735 -1.159344 1.120741
3.879242 -3.154597 8.678537
1.290626 -4.830557 5.302944
-3.632700 3.435621 1.117670
4.056734 -2.922825 6.794001
-1.760886 -4.679667 7.733465
-2.939787 4.044459 5.560956
0.093806 -4.999120 0.068552
4.848565 -1.221236 2.056946
-4.572261 2.023470 5.066428
4.411960 -2.352575 4.214169
4.372962 -2.424294 3.609306
1.292915 -4.829945 8.091730
0.836256 -4.929572 4.575753
3.895782 -3.134147 1.740437
4.777236 1.475809 9.749579
-2.914684 4.062587 9.869605
2.583555 4.280799 2.362567
0.961971 -4.906589 3.236910
-2.435546 4.366705 7.131888
-3.150148 -3.882856 5.797001
0.368552 4.986398 1.757726
-4.069505 -2.905017 3.936647
-3.569119 3.501627 5.399899
-0.700879 -4.950633 8.012755
-2.212390 -4.483897 3.866013
-3.744076 3.313895 7.084680
4.249787 2.634257 0.582251
-4.733174 -1.611542 3.178647
4.090654 -2.875161 9.748371
-0.856856 4.926033 6.187413
-3.232426 -3.814633 3.090816
4.525939 2.125060 2.352173
4.992989 0.264685 7.743933
3.031756 3.975985 4.622119
-2.924222 -4.055728 9.292405
3.807337 -3.241016 8.186873
-4.922729 0.875635 0.705023
4.943374 -0.750367 9.196881
4.998557 0.120117 0.314739
-3.772294 3.281737 2.151034
3.364652 3.698529 8.111109
-4.905827 0.965849 7.789978
-3.495064 3.575546 7.739237
-4.999816 0.042927 4.021618
2.793911 -4.146572 0.161248
-0.184097 -4.996610 5.611015
3.968032 -3.042158 5.770361
-0.521549 -4.972724 0.339624
-3.655303 -3.411563 6.319196
4.856772 -1.188178 8.401846
-2.361935 4.406956 6.559438
0.325662 4.989383 7.489909
4.757403 1.538544 3.169744
3.686782 -3.377520 0.439654
1.953910 -4.602416 5.922541
-3.609515 3.459971 1.540439
-2.254841 -4.462700 9.366353
4.999290 -0.084250 7.837428
2.568327 4.289953 0.308348
3.859622 3.178572 0.319570
4.800099 1.399660 5.354411
3.733425 -3.325889 5.556419
4.567680 -2.033790 5.607095
-3.966868 3.043675 6.111935
4.513100 -2.152192 8.043342
0.945509 4.909787 7.403791
2.493335 4.333968 2.806753
4.169067 2.760231 6.544583
-4.169924 -2.758937 0.790237
4.515157 2.147874 6.018709
-4.631025 1.885101 3.798036
4.565536 -2.038597 9.382635
1.275424 -4.834593 2.706658
-4.801257 -1.395683 7.096088
-4.616662 1.920007 5.006174
0.415468 4.982709 8.733223
-1.945593 4.605938 9.054072
-2.477216 4.343201 4.893529
4.713303 -1.668765 2.263468
-4.764590 1.516140 7.631842
-2.937675 4.045994 5.112259
4.924466 -0.865813 1.128858
-2.708205 4.203050 4.449086
-4.795076 -1.416774 0.138070
-4.863555 1.160099 8.962023
4.314038 2.527662 9.976044
-4.010463 2.985998 1.774800
3.306261 3.750818 8.118966
1.329332 -4.820049 2.459120
-4.276945 -2.589931 9.501248
0.767024 -4.940817 9.038162
4.825557 -1.309198 9.170985
-4.790245 1.433021 3.140616
3.584780 -3.485592 1.441265
4.703484 1.696243 0.456998
1.928614 -4.613073 2.969361
-0.207097 4.995709 2.178641
-4.942079 0.758850 0.547539
1.578295 -4.744364 4.086748
3.133695 3.896146 5.466905
2.933827 4.048785 1.384094
2.155134 4.511696 3.840804
3.410641 -3.656163 1.022060
4.714771 -1.664612 4.202154
-1.363814 -4.810406 5.982828
-2.813756 4.133131 8.754067
-4.207906 -2.700653 6.747173
3.915303 3.109727 7.609029
4.225238 -2.673455 2.018656
0.295614 4.991254 6.526389
4.963419 0.603718 4.527562
3.342619 3.718454 0.917682
4.294477 -2.560755 8.880114
-2.851097 -4.107462 9.234061
-4.472637 -2.235065 0.894545
-4.586828 1.990228 6.516485
-3.073534 3.943779 1.587451
3.247350 3.801936 3.556212
2.967613 4.024086 9.845585
-3.123632 -3.904219 3.781203
-2.483744 -4.339472 8.096479
1.691401 -4.705227 2.950395
4.974005 -0.509190 7.225835
1.054082 -4.887628 3.765767
0.834959 4.929791 9.960435
1.395377 -4.801346 0.380190
4.336429 -2.489053 5.299911
-3.663774 3.402463 2.177222
-4.834664 1.275156 4.249631
-4.826873 -1.304339 0.629672
-2.042200 -4.563926 6.722909
-1.266925 -4.836827 4.538250
2.018471 4.574470 3.806384
1.839925 -4.649159 7.087905
4.631699 -1.883445 4.514390
4.524622 2.127863 3.878786
4.682288 -1.753903 1.408708
1.914299 4.619032 5.761653
4.122219 -2.829719 7.522164
-4.867191 1.144750 8.680592
-3.855175 3.183964 5.458797
4.702078 1.700136 3.774381
1.664319 -4.714875 7.994538
4.353151 -2.459691 7.155416
-1.106100 -4.876120 7.171079
4.821643 -1.323540 9.440513
-4.999945 -0.023446 4.412287
-4.833770 -1.278540 0.283748
3.987295 3.016866 8.270660
0.100296 -4.998994 0.450205
4.972521 0.523486 5.232397
2.168161 -4.505450 7.888070
0.517347 4.973163 9.971532
4.520228 2.137180 8.195485
4.058742 2.920036 0.927344
3.222795 3.822773 3.347924
2.508874 4.324992 1.023550
4.999148 -0.092284 0.431061
-1.915419 -4.618568 2.899711
-2.520073 4.318476 9.825489
4.778526 1.471627 2.794019
-4.389912 -2.393464 0.122096
1.854861 -4.643220 5.238841
0.981953 4.902629 5.078440
-2.269675 4.455174 8.809528
-1.421772 4.793596 1.752545
4.432580 -2.313490 9.435857
-4.920268 0.889361 1.003013
4.859534 -1.176830 9.232570
3.027319 3.979364 8.853395
2.477970 -4.342772 6.304380
3.801326 -3.248064 3.586961
-3.551031 -3.519968 2.500554
0.875782 -4.922703 2.165852
4.574359 2.018722 9.847822
-3.253091 -3.797025 7.356150
-4.981618 0.428354 8.138311
2.905123 -4.069430 1.848755
1.825918 -4.654678 3.539489
-1.226574 -4.847217 8.114680
-0.379180 -4.985602 1.108470
-1.826519 4.654442 1.610013
-4.578442 -2.009446 4.215199
-0.421612 -4.982193 4.655628
3.023293 3.982424 9.783186
-3.886178 -3.146048 7.997205
-4.868278 -1.140117 5.880397
-3.114597 3.911430 3.866998
-4.976801 0.481089 4.362433
-3.783260 -3.269089 4.438040
-1.268701 4.836362 3.074423
-4.954505 -0.672964 3.743138
4.154506 -2.782100 3.351875
-3.840026 3.202218 8.980434
1.116762 -4.873689 4.509655
3.096053 3.926125 1.823767
-4.957715 0.648892 2.774844
-1.688908 4.706123 7.833931
-0.872984 -4.923200 2.743091
0.883703 4.921287 2.351549
4.276757 -2.590242 8.288896
0.720013 4.947887 2.304166
-4.997371 0.162136 4.447641
-1.092797 4.879118 7.001999
2.387045 -4.393406 1.799438
4.856708 1.188439 7.952309
-4.930414 0.831273 6.728749
3.456710 3.612639 4.358539
3.762240 3.293258 5.002340
-4.306096 2.541168 2.097775
3.425608 3.642143 2.075447
1.105077 -4.876352 0.067567
-3.397443 -3.668430 5.643415
3.927771 3.093964 8.884320
-4.984884 -0.388502 1.501958
0.812282 4.933579 1.159547
-4.836873 1.266751 1.245256
-4.978069 0.467794 4.752904
1.132001 4.870172 8.098811
-1.883342 4.631741 2.788368
-3.250575 -3.799179 9.149036
-4.949677 -0.707597 7.428754
-3.149105 -3.883701 2.976990
-2.377174 4.398755 3.018649
0.734900 -4.945697 9.855295
4.999435 0.075164 9.727625
-3.054075 3.958867 6.851601
-1.634140 -4.725419 4.172674
4.639917 1.863107 5.029926
-4.994250 -0.239717 9.957007
-2.060274 4.555795 4.545750
4.687263 1.740565 2.338950
0.302414 -4.990846 1.089274
4.939929 0.772724 1.668014
3.523898 3.547132 9.783965
4.449259 2.281248 7.168392
-2.600889 -4.270290 6.386270
0.155295 4.997588 3.695370
2.010170 4.578124 9.247254
4.863651 1.159698 6.559901
4.115026 -2.840169 3.983110
-1.666108 4.714243 3.432838
4.439744 2.299712 0.539839
-3.307252 -3.749944 7.591038
2.855552 4.104366 0.966973
4.902194 0.984120 4.943284
-2.044897 4.562718 5.183397
4.926561 0.853814 8.294531
-4.721817 -1.644520 2.758593
-4.774117 1.485868 6.315720
4.671670 1.781993 0.020116
3.330762 -3.729078 8.725088
-2.775054 4.159215 5.812461
4.905417 0.967930 2.086811
-4.595359 1.970450 3.036782
-4.996854 -0.177333 6.154887
-4.182343 2.740074 1.299629
-2.753814 4.173309 1.913502
-0.233750 4.994533 7.027458
3.650316 -3.416899 7.121195
-4.519296 -2.139149 0.029394
-4.982208 -0.421428 8.287595
-4.775267 1.482168 6.555454
1.902659 -4.623839 6.231265
-4.742509 -1.583859 2.480805
-1.351240 4.813954 2.484200
3.272466 3.780340 0.620634
4.237817 2.653470 2.288607
4.740617 1.589512 7.608909
4.824451 1.313266 9.280101
-4.867063 -1.145296 4.352480
4.181721 -2.741024 5.785931
1.731201 -4.690729 0.228028
3.917809 -3.106570 5.574021
2.633570 -4.250213 2.626181
-1.365954 -4.809799 5.133102
4.966104 -0.581214 5.605472
-1.535990 -4.758228 6.426815
4.191143 2.726595 8.648881
4.706624 -1.687510 8.906537
4.779391 1.468816 0.380447
-2.718152 4.196624 5.824095
4.241468 2.647630 3.214017
-3.870020 -3.165903 1.892208
1.221441 -4.848513 5.130874
-4.264726 2.610003 8.043934
-4.999908 -0.030309 9.007132
-4.469125 -2.242080 0.574592
4.649247 1.839701 4.964165
-2.608255 4.265795 3.415382
2.261735 -4.459210 5.335139
-4.983034 0.411552 3.213909
0.149287 4.997771 0.664401
4.217925 -2.684979 4.954123
-4.917215 0.906087 5.042596
-4.996626 -0.183658 2.539038
-2.168914 -4.505088 0.647684
-2.268912 4.455563 8.488038
-3.524423 3.546610 8.467041
-2.154393 4.512049 3.961136
-0.381036 4.985460 6.656433
1.444705 -4.786735 5.021951
-4.389037 2.395069 2.242854
4.890071 -1.042693 2.971569
4.627824 1.892945 0.316072
-2.608250 -4.265798 9.319949
4.603904 -1.950403 5.975549
-2.940584 4.043880 6.895047
0.751683 4.943174 8.087168
3.452720 3.616452 9.937607
-3.710516 3.351428 7.720777
4.802241 -1.392294 5.294686
-2.706421 4.204199 5.518324
1.723623 4.693519 2.989023
4.528759 -2.119043 4.884073
-4.761575 1.525583 3.624790
0.775996 4.939416 7.381609
-4.852886 -1.203951 3.254352
1.912223 4.619892 3.712772
3.672887 3.392624 8.934208
4.995180 -0.219501 3.430533
4.985455 0.381100 2.791994
-4.468982 2.242366 4.524787
4.899449 0.997697 4.127195
-4.841262 1.249871 5.315826
-3.412326 -3.654590 4.517751
4.387573 2.397750 6.483839
-0.061006 4.999628 9.120779
-4.492105 2.195676 4.877026
3.627400 -3.441217 9.684322
-3.924306 3.098358 6.083522
-1.048364 4.888858 6.258902
-1.410419 4.796949 1.450519
4.817861 1.337241 3.224577
-2.235726 4.472307 7.922755
-4.347909 2.468944 4.711677
-1.715012 -4.696673 7.854657
-4.935244 0.802103 4.646613
4.999243 -0.087025 2.450400
4.299649 -2.552062 1.489682
3.295066 3.760657 5.673671
4.998728 -0.112785 7.898030
0.420778 4.982263 8.930535
1.769339 -4.676477 7.763618
0.957945 -4.907376 9.828887
-3.857551 3.181084 5.550124
3.189808 -3.850341 9.471129
4.423541 -2.330727 5.915772
3.857568 -3.181064 5.753519
-4.715086 -1.663720 4.078676
2.131954 4.522695 1.378154
0.861586 4.925208 4.300156
3.179408 -3.858933 1.209759
-3.632494 -3.435838 9.057933
-3.172782 -3.864383 9.771046
2.642679 4.244555 6.010278
-4.840197 -1.253992 3.102231
-1.605097 4.735363 7.760073
-1.132043 -4.870162 1.332830
4.363277 -2.441683 2.616356
-3.293107 3.762372 0.201100
-2.433552 4.367817 5.548589
-4.996298 0.192371 0.276293
-3.376095 -3.688086 0.918574
2.026269 -4.571021 4.892719
4.713279 -1.668832 7.415833
-4.665400 -1.798345 8.849153
-3.392951 -3.672585 8.850048
-4.665713 -1.797532 1.198612
1.561273 -4.749992 1.154798
3.605836 3.463806 4.173067
0.768894 4.940526 1.870657
-0.813245 -4.933420 6.171363
-4.913207 0.927575 4.799685
1.993549 -4.585386 7.101532
2.130147 4.523547 2.928985
-1.682217 4.708518 1.071936
-1.918124 4.617445 8.827288
4.992282 0.277700 7.868864
-1.461626 4.781595 4.716602
3.289227 -3.765765 4.472364
-0.094971 -4.999098 0.993351
4.999948 -0.022820 8.023946
4.702978 -1.697645 6.922007
-2.184350 4.497623 8.895897
-0.234009 -4.994521 4.142204
-4.371000 -2.427830 9.738826
-1.326433 4.820848 1.265561
-4.317009 -2.522585 5.287305
-4.037086 -2.949904 5.187795
-3.058681 3.955309 5.689877
-4.865904 -1.150209 7.573426
-0.312416 -4.990230 7.950815
-2.247423 -4.466440 4.278186
-2.933221 -4.049224 2.986427
1.690971 -4.705382 3.386652
-4.483469 2.213256 9.243572
3.034726 -3.973719 0.620591
-4.463725 2.252812 6.000587
-4.892734 -1.030121 0.042767
3.307955 -3.749324 3.106832
4.859532 1.176838 8.270875
4.838375 -1.261002 7.166541
4.447612 2.284458 0.008635
-4.022459 2.969818 0.827715
-4.711509 -1.673823 7.658330
-2.256604 4.461809 4.886927
-1.891728 4.628322 7.293063
-1.699570 -4.702283 8.916068
-3.570359 -3.500363 9.971291
-0.513713 -4.973540 7.605025
-1.843773 4.647634 8.867674
4.732170 -1.614487 0.496810
-3.524414 -3.546619 0.812196
-0.650971 -4.957443 2.102386
4.838778 -1.259455 2.799146
2.900520 4.072712 5.844261
3.889832 3.141529 5.999427
-4.330758 2.498907 2.240024
0.844465 4.928172 2.077084
4.754292 -1.548130 0.871086
-3.455678 3.613625 0.926076
-0.047312 4.999776 3.433835
4.994773 -0.228559 0.102582
-2.349993 -4.413336 7.354155
-4.912982 -0.928767 7.446573
-2.706868 4.203911 8.431169
1.021983 4.894441 9.892635
-4.638643 1.866278 8.740357
-0.978210 -4.903377 5.802579
-4.022454 -2.969825 7.294310
3.562875 3.507979 7.463372
-4.719039 1.652475 7.938767
-4.374694 2.421168 4.483521
-4.231750 2.663135 9.913962
4.964465 -0.595053 6.789505
-4.790021 1.433770 8.030117
2.289502 4.445017 1.132348
3.921296 3.102166 1.399708
3.227157 3.819092 1.340112
-4.950516 -0.701709 5.556963
0.901285 4.918098 3.072000
4.062410 -2.914931 8.742542
-4.669383 1.787977 4.919938
4.380691 -2.410300 8.265428
0.798704 -4.935795 5.996434
0.349334 -4.987782 5.786454
-4.999558 -0.066487 5.468523
3.337708 -3.722863 5.998711
-2.925347 4.054916 9.197366
4.592366 1.977415 9.631623
2.031477 4.568709 8.855612
1.398146 4.800540 5.717721
4.519164 2.139430 0.989060
4.410397 -2.355503 4.520093
0.234521 -4.994497 2.903177
-2.981672 4.013680 9.413058
4.875850 1.107286 4.032130
-4.999858 -0.037663 4.192057
-4.519218 2.139315 4.031215
-4.995841 0.203882 8.593297
-0.195978 4.996158 5.018075
-1.437754 4.788827 2.685216
-2.739627 -4.182636 2.693910
0.920604 -4.914518 5.968439
2.510900 -4.323816 5.612836
4.622136 1.906794 3.381474
-4.795481 -1.415401 2.611146
4.479156 2.221972 1.470380
-4.553107 -2.066208 0.594574
4.035251 -2.952414 4.736151
-3.513960 -3.556977 6.131881
2.598219 4.271915 2.915826
-0.932900 4.912199 7.674411
-3.308041 3.749249 9.540759
1.650117 4.719864 4.428169
-3.186981 -3.852681 0.609084
-4.996012 0.199655 2.388916
-1.094229 4.878797 3.378180
-1.867655 -4.638089 6.503946
-4.980300 0.443410 8.783186
-4.482077 -2.216075 6.209928
1.387651 4.803585 9.839478
-4.930735 -0.829368 1.825249
2.988949 -4.008265 3.458100
-0.623785 -4.960937 3.900873
-1.433061 4.790233 3.576027
-0.377988 4.985692 5.324164
0.042264 4.999821 7.980693
3.119528 3.907498 7.780813
2.879944 4.087288 4.824008
4.990805 -0.303090 6.240715
4.736090 1.602951 1.876304
0.860439 4.925408 0.175670
-4.291127 2.566365 7.773700
4.168316 -2.761366 9.952128
2.914730 4.062555 7.830434
3.826262 3.218652 2.917003
-4.905347 -0.968282 5.727101
-1.423730 4.793015 7.079802
-2.898159 -4.074393 1.543475
4.727473 -1.628188 4.066089
-1.631868 -4.726204 5.286016
-0.098528 4.999029 4.378628
4.993775 0.249430 7.841371
1.738855 -4.687897 2.904742
0.043060 -4.999815 9.138634
4.895993 -1.014518 1.615207
1.696978 4.703219 6.526329
0.546413 4.970054 2.414918
-1.004827 4.897992 8.711261
4.848240 1.222525 7.782429
-4.915856 -0.913432 9.022033
-2.715489 4.198347 0.651754
-4.505789 -2.167455 0.846573
1.608600 4.734174 4.729687
-4.998702 -0.113926 8.270216
4.970394 -0.543311 3.021262
2.036024 4.566685 1.119006
4.531534 -2.113103 6.364319
-0.637371 4.959209 1.894369
-4.413226 -2.350200 6.138168
2.652761 4.238261 4.845415
-3.375039 3.689053 1.321879
-4.862370 -1.165059 5.841907
-4.535885 -2.103747 6.471405
4.379550 2.412372 9.268127
4.977953 0.469024 7.614020
4.904636 0.971877 5.601629
3.839033 -3.203408 3.853538
-4.999986 0.011762 1.005024
-4.930219 -0.832431 4.496542
-4.693651 1.723265 0.905744
-1.456391 4.783192 9.005094
3.942471 3.075211 2.988651
3.476027 3.594056 8.661346
-3.706288 3.356103 1.006290
1.830657 4.652816 5.163264
4.405117 -2.365364 9.237748
-1.457298 -4.782916 7.359111
1.559683 -4.750515 8.157758
-0.951757 -4.908580 7.656344
4.996900 0.176047 9.667632
-3.265708 -3.786179 8.388722
4.934900 -0.804218 6.844076
-1.807675 -4.661793 8.435592
4.387945 2.397069 9.056284
4.993805 -0.248813 3.024573
-4.835305 1.272724 6.918476
2.398974 4.386904 0.504787
-0.017052 4.999971 2.325635
4.058801 -2.919955 5.678132
-3.796240 3.254007 5.366989
-0.110361 4.998782 5.194121
-2.340740 4.418250 6.111148
4.555319 2.061326 8.953451
0.087143 -4.999241 7.272480
1.874472 4.635338 0.975900
4.058404 2.920506 1.808412
-3.939056 -3.079584 0.282435
-4.257369 -2.621986 2.146525
-4.028436 -2.961707 0.941134
-1.305650 4.826518 5.395387
-4.828032 1.300043 2.548563
-3.193875 -3.846968 2.749310
-1.717745 -4.695674 4.110269
-4.282750 2.580319 4.466873
-4.422136 -2.333391 7.827149
-4.555897 2.060050 4.740455
2.685588 -4.217537 2.526046
0.037602 -4.999859 3.571055
0.374366 4.985965 5.455630
-0.843837 4.928279 8.033138
-3.579134 3.491389 7.550385
3.945344 3.071524 8.474144
-3.776138 3.277314 3.945410
4.775104 -1.482696 3.301744
-1.169350 4.861339 8.047264
-3.403987 -3.662358 1.049348
2.760025 -4.169204 3.484135
-4.980336 -0.443001 9.256280
1.534336 4.758762 2.437000
-4.085637 2.882286 2.355822
-4.629696 -1.888363 7.821791
4.796632 -1.411495 1.222446
-4.070569 2.903527 7.120414
0.726634 4.946918 9.627174
3.636282 -3.431830 0.927745
-4.970112 -0.545879 9.416800
1.480707 -4.775721 1.799427
-4.907748 -0.956041 8.620786
-1.248414 4.841638 1.671604
-3.224149 -3.821631 6.145345
0.215349 -4.995360 5.215193
-4.278427 2.587482 6.585482
4.806137 1.378786 1.565214
4.253783 2.627799 8.358183
3.545380 3.525660 6.183701
4.784651 -1.451591 5.598452
0.893712 4.919479 5.674834
4.356235 2.454225 7.481913
4.712880 1.669959 8.883949
-4.841955 -1.247185 2.865293
0.947477 4.909408 8.027920
0.114092 -4.998698 3.480594
0.901876 -4.917989 4.772706
3.460136 -3.609357 8.306817
-2.190650 4.494558 2.643516
-4.940112 0.771552 0.639214
-4.480705 -2.218847 0.213939
4.806465 -1.377640 6.628058
-4.968334 0.561836 2.577791
4.698505 1.709986 0.104021
1.165718 4.862212 0.526157
-3.902076 -3.126308 7.362686
4.717266 1.657528 3.523607
-3.785793 3.266155 5.922641
-4.503929 -2.171319 4.624145
3.871603 -3.163967 8.069544
-4.686546 1.742494 5.791336
1.735855 4.689009 8.471981
1.774738 4.674431 0.449609
2.649707 4.240171 2.142659
1.510731 -4.766308 2.261766
2.890607 -4.079754 2.988525
-3.901006 3.127643 9.169089
4.322706 2.512810 9.880818
-1.700783 -4.701844 0.751439
-3.395751 -3.669997 3.048475
3.659111 -3.407478 7.217708
-4.986399 -0.368547 8.598018
-0.153668 4.997638 1.778835
2.426117 -4.371951 0.009561
-1.755215 -4.681797 3.384479
4.003981 2.994684 0.215925
-4.966263 -0.579856 8.009555
-1.130757 -4.870461 2.478212
-3.414845 3.652237 8.155627
-4.696827 -1.714589 1.735014
2.636743 -4.248245 9.007916
-4.416242 2.344526 1.920251
-3.988225 3.015636 1.334934
-4.185196 2.735715 1.510045
1.100160 4.877463 3.534939
-2.256838 -4.461690 8.210500
-3.194941 -3.846083 4.192291
4.932549 -0.818510 2.143772
2.726267 4.191357 0.931471
-4.973384 -0.515217 2.914159
2.479045 -4.342158 3.631867
-1.936547 4.609749 4.030214
-3.692370 3.371410 5.432331
-4.971864 -0.529684 2.931571
-2.285815 -4.446914 8.688084
1.964758 -4.597796 2.072291
-2.654685 4.237057 8.964179
-4.451681 2.276519 2.471058
4.143577 2.798351 6.429803
3.167053 3.869079 4.785899
3.174746 -3.862770 3.499177
3.636597 3.431495 6.158865
-4.173477 2.753559 4.574771
-0.340829 4.988370 8.656484
3.541436 3.529622 7.952709
3.044717 -3.966069 4.401379
-0.316931 4.989945 2.373980
-4.973540 0.513711 0.262267
4.887019 -1.056905 9.800632
1.039925 4.890660 3.584213
4.999254 -0.086364 6.967056
1.436283 -4.789268 5.448126
-4.155781 -2.780195 7.308479
0.895064 -4.919234 2.773178
4.987898 -0.347669 7.418271
-4.866947 -1.145786 9.113150
-4.305661 2.541905 9.621120
-4.834106 -1.277269 2.672805
-4.830490 -1.290880 0.027318
-4.685665 1.744863 1.983350
4.409397 -2.357375 2.783939
-4.907658 -0.956499 5.304834
0.126907 4.998389 1.352098
-4.959844 -0.632415 3.233149
4.834265 1.276669 9.583403
-4.930130 -0.832958 4.367388
4.989723 -0.320417 2.199997
-0.656801 4.956674 7.025922
4.535507 2.104561 1.953860
-3.444507 3.624275 7.129130
-0.872423 -4.923300 1.269385
-1.944947 -4.606211 9.749273
-1.362405 4.810806 7.092689
-1.136387 4.869150 9.595113
2.381899 4.396198 8.144837
4.023017 -2.969063 6.900415
4.393596 2.386696 6.775533
4.546250 -2.081252 6.379815
4.992719 0.269736 9.934838
4.908768 -0.950788 4.566848
-4.044149 2.940213 1.928843
4.123975 -2.827159 5.792588
2.957900 -4.031232 3.359733
0.331794 4.988979 8.163695
-4.971782 0.530456 4.584968
0.088753 4.999212 5.562181
-0.034899 -4.999878 1.726613
-4.986448 0.367883 0.263713
2.376440 4.399152 1.869080
-3.247614 -3.801711 2.192875
3.267095 -3.784982 8.538028
-1.263808 -4.837643 1.018251
-0.107487 4.998845 6.689410
0.636580 4.959311 6.920758
4.261822 2.614741 3.160404
-2.886869 4.082400 2.323788
-1.344357 -4.815880 8.052841
-1.776160 -4.673891 6.117636
4.997655 -0.153110 0.650509
4.956633 0.657105 9.868580
-3.843795 -3.197692 3.444436
0.147892 -4.997812 5.629039
-4.998917 0.104060 4.254107
-4.940193 0.771036 6.424168
3.183860 3.855261 9.437359
-4.185200 2.735708 5.496318
-4.968335 0.561829 0.853849
-0.522066 4.972670 6.821013
0.486013 4.976323 6.732810
-4.578614 -2.009054 7.339070
-1.452330 -4.784427 1.142481
4.771212 -1.495172 4.762184
4.994083 -0.243173 8.421056
-0.760575 4.941814 7.664944
-3.762447 3.293022 8.349581
-4.953445 -0.680721 3.248973
-1.207243 -4.852068 8.655409
1.361942 -4.810937 9.899262
-1.565637 -4.748556 0.963539
-4.727116 1.629226 5.226207
-4.690934 1.730647 7.803874
3.371291 3.692478 5.158405
-2.669310 -4.227858 8.683762
3.160413 3.874505 3.737015
1.349275 4.814505 4.564147
-4.347107 -2.470357 1.280408
4.889379 1.045932 2.966592
4.906151 -0.964200 5.382688
4.434733 2.309361 2.380459
-4.339610 -2.483502 0.317804
3.742419 3.315766 9.041908
-2.394966 4.389093 6.644440
0.807061 4.934435 2.451196
-2.121004 -4.527841 9.286823
2.897559 -4.074819 5.817226
2.948023 -4.038460 7.452549
-4.831665 -1.286474 5.254553
-1.562178 4.749695 0.338490
-3.532246 3.538819 9.263850
1.427862 4.791786 1.848427
-3.823592 -3.221823 0.642302
-3.365972 -3.697328 3.414044
0.711274 -4.949150 9.713526
4.939860 -0.773167 9.246655
-2.498357 -4.331075 4.146939
3.419522 -3.647858 7.262078
-4.982906 -0.413099 5.355912
4.999351 -0.080529 1.224777
4.999718 0.053149 9.286422
4.077407 2.893916 8.314492
-4.911277 -0.937741 1.708660
-0.892125 4.919768 3.844390
-3.578480 -3.492059 7.313413
1.361922 -4.810943 6.090315
-3.840784 -3.201309 6.409149
-4.927923 -0.845919 0.179033
2.186685 -4.496489 1.328166
4.996449 -0.188406 2.777940
4.529812 -2.116791 6.177443
3.675280 -3.390032 7.477968
-4.983203 -0.409501 2.153206
0.577812 -4.966501 7.058364
2.571952 4.287781 8.220046
-1.056966 -4.887006 8.126118
-1.659589 4.716541 2.610730
-4.727659 1.627649 9.039428
2.867178 -4.096253 7.772288
-3.443532 3.625202 5.795260
-1.687821 4.706512 1.367360
-4.823300 -1.317491 5.297416
4.531606 2.112947 6.381115
-3.396362 -3.669431 6.449605
-4.645985 1.847923 3.407301
-2.167839 -4.505605 3.303253
2.297944 4.440659 2.037171
4.810111 -1.364856 9.814986
4.757691 -1.537652 6.471944
0.763730 4.941327 0.174164
-1.880332 4.632963 0.151546
-2.220121 4.480074 6.834383
-4.225943 -2.672342 9.588413
4.990492 -0.308204 6.928095
4.221402 -2.679509 8.675112
-1.262173 4.838070 4.096166
-1.509458 -4.766711 6.916297
0.110837 -4.998771 7.962884
-4.946495 0.729510 3.540790
-1.866112 4.638709 8.945097
4.080605 2.889406 4.040882
-3.777217 -3.276070 8.570278
4.653752 1.828275 7.724550
0.683569 -4.953053 8.134655
-2.941401 -4.043286 8.784430
-4.365207 2.438230 9.062820
0.733223 4.945946 4.810391
4.512637 2.153162 9.532261
0.631321 -4.959983 3.759064
0.213849 -4.995425 2.974498
-2.583053 -4.281102 5.263501
4.644107 1.852638 1.208538
-0.221718 4.995082 4.267440
4.577145 2.012397 4.353124
-4.747536 1.568727 1.369590
4.988242 -0.342693 3.295489
-4.985420 -0.381555 2.345020
1.417064 -4.794990 4.995044
0.465309 -4.978302 7.001779
-2.323661 4.427257 6.444740
-4.945456 -0.736525 5.384562
4.349573 -2.466012 7.395558
-4.008168 2.989078 9.647788
0.012353 4.999985 2.874982
-3.145988 3.886227 4.047993
3.289481 3.765543 3.093575
-2.813573 4.133256 2.296453
-4.965111 0.589634 0.869521
4.995703 -0.207240 9.922318
4.897213 1.008617 9.851531
2.402092 4.385197 2.371865
2.650214 -4.239855 4.418225
4.766211 1.511036 8.743467
4.934973 -0.803765 4.521075
4.723835 -1.638713 2.042219
-3.259109 -3.791861 8.036397
2.068739 -4.551958 1.013783
-1.075123 -4.883043 7.980913
-1.634512 -4.725290 3.882504
-2.096033 4.539454 9.498766
1.892201 4.628129 6.413086
-1.691314 4.705259 0.316962
2.029715 4.569492 3.099375
2.494400 4.333356 2.347480
-3.111215 -3.914121 3.265843
3.930910 -3.089975 5.484167
-3.115404 3.910788 4.849208
-0.191851 4.996318 0.815865
1.006794 -4.897588 6.468462
3.941679 -3.076227 8.513946
-4.447267 2.285129 5.829417
-4.772924 1.489696 3.695059
-2.296493 -4.441409 4.339060
-2.541986 -4.305614 5.231403
-4.819284 -1.332103 7.189386
-0.345220 -4.988068 4.349957
4.993959 -0.245719 8.783065
2.828720 4.122904 7.173985
-1.262431 -4.838003 3.929085
1.687430 -4.706653 8.954350
2.261199 -4.459482 9.222741
4.459977 -2.260222 1.406192
-1.146634 -4.866747 9.207147
0.650708 -4.957477 5.871047
-4.244395 -2.642936 5.333773
-1.845795 4.646831 9.899416
4.955070 -0.668794 8.719273
0.330215 4.989084 5.061291
-4.105088 2.854514 6.103470
-3.779804 -3.273085 5.043479
-4.537766 2.099686 6.363746
2.529866 -4.312746 2.944047
-4.923398 -0.871866 8.139795
0.908646 -4.916743 0.564660
2.734263 4.186145 8.625276
-4.822247 -1.321338 0.142458
-4.062215 -2.915202 4.500566
1.197547 4.854470 0.926635
4.542160 2.090163 9.330761
3.007763 3.994166 2.056908
4.945544 0.735931 7.736381
-0.278150 4.992257 5.217056
0.941227 -4.910610 1.815700
4.383532 2.405130 1.661812
-1.980829 4.590895 4.106387
-2.447586 4.359968 4.179242
2.364343 -4.405665 4.059808
-4.945676 -0.735041 2.563438
-1.670814 4.712577 1.079197
4.115954 2.838825 9.455709
-4.901620 -0.986976 5.880760
-4.739328 1.593351 7.515003
-4.743918 1.579634 9.519614
-4.943466 0.749760 3.523477
